# .PCD v0.7 - Point Cloud Data file format
VERSION 0.7
FIELDS x y z
SIZE 4 4 4
TYPE F F F
COUNT 1 1 1
WIDTH 1613
HEIGHT 1
VIEWPOINT 0 0 0 1 0 0 0
POINTS 1613
DATA ascii
202.03008 56.663803 1.227291
202.00154 56.77243 1.2240694
201.94606 56.983841 1.2178006
197.052 55.038216 1.1693135
197.01808 55.106308 1.1669792
201.89482 57.150803 1.2127038
196.908 55.521679 1.1546413
196.87138 55.688046 1.1498463
201.79834 57.720234 1.1968591
201.78366 57.816158 1.194221
201.71996 58.050152 1.1872374
196.71091 56.209152 1.1339282
202.17874 56.277641 1.2293487
202.14143 56.343395 1.2270489
202.12245 56.459423 1.2238711
202.08342 56.562569 1.2206295
202.05522 56.669174 1.2175077
202.02756 56.773872 1.2144421
197.14893 54.828552 1.1700565
197.11487 54.896469 1.1677651
201.976 56.940746 1.2094159
197.07906 55.000908 1.1645528
201.94972 57.040638 1.2064934
197.04384 55.103527 1.1613961
197.00923 55.204384 1.1582934
201.91299 57.243183 1.2008786
196.99229 55.307949 1.1554573
196.96037 55.370625 1.1533333
201.87944 57.404751 1.1963196
196.93848 55.469799 1.1505104
201.85507 57.496994 1.193619
196.92253 55.568638 1.1478077
196.89021 55.661671 1.1449386
196.85841 55.753197 1.1421155
196.83806 55.845837 1.1394805
196.79404 55.994331 1.1350427
196.76385 56.080566 1.1323788
201.71321 58.329769 1.1707051
202.22087 56.110149 1.2290467
202.18358 56.175919 1.2267662
202.12856 56.272991 1.2234005
202.07217 56.488323 1.2171278
202.02974 56.585117 1.2139977
197.13823 54.839775 1.1676579
201.9823 56.867947 1.2062423
197.08556 54.937664 1.1643152
201.96631 56.971401 1.2034304
197.05096 55.038528 1.1612283
197.03407 55.142097 1.1583971
197.00217 55.204784 1.1562895
196.9803 55.303967 1.1534748
199.9314 56.384514 1.1807603
196.96439 55.402809 1.1507766
196.9321 55.49585 1.1479224
196.91135 55.590027 1.14525
201.84993 57.610405 1.1857417
196.89641 55.68391 1.1426903
196.84683 55.831024 1.1382041
202.22488 55.859627 1.2312407
202.18501 56.049801 1.2258664
202.16681 56.163837 1.2227448
202.10135 56.369934 1.2165269
197.26408 54.446224 1.1781405
197.23 54.514084 1.1758714
202.07495 56.550167 1.2116355
197.19412 54.618435 1.1726749
202.11241 56.684525 1.209
197.15886 54.720966 1.1695337
197.12418 54.821739 1.1664462
202.03621 56.865784 1.2032018
197.09009 54.920795 1.163411
197.0582 54.983494 1.1613076
202.00241 57.027313 1.1986383
197.03636 55.082684 1.1584861
201.97791 57.119522 1.195941
197.02049 55.18153 1.1557786
201.95381 57.210236 1.1932878
196.98824 55.274586 1.1529235
196.95648 55.366131 1.1501143
196.93619 55.458786 1.1474805
201.87637 57.436497 1.1863629
196.89226 55.607311 1.1430571
201.8407 57.611431 1.181437
201.76955 57.913742 1.1727563
202.22176 56.124554 1.2222465
202.16887 56.215843 1.2190666
197.27654 54.27187 1.1810366
197.21863 54.447563 1.1756873
202.22852 56.557281 1.2116964
197.18352 54.550217 1.1725394
202.13838 56.62048 1.2085545
197.16623 54.655621 1.1696371
202.12694 56.724808 1.2057811
200.09862 55.752014 1.1941276
197.13216 54.754688 1.1665958
200.04655 55.901676 1.189523
197.09538 54.92083 1.1618533
200.03027 55.995274 1.1869293
197.07381 55.018204 1.1590735
197.0415 55.111198 1.156213
201.94958 57.219952 1.1904571
196.99483 55.296581 1.1508223
196.96156 55.447445 1.1465181
196.93129 55.53355 1.1438633
201.90614 57.552742 1.1814886
201.87547 57.629227 1.1790642
201.68942 58.633591 1.1510321
202.31865 55.864212 1.2291225
202.26477 55.957245 1.2258607
202.22194 56.05389 1.2227056
202.18718 56.113789 1.2206042
197.25583 54.165466 1.1812365
202.17535 56.223423 1.2176782
197.22043 54.270203 1.178013
202.14906 56.323307 1.2147367
197.18562 54.373123 1.1748452
200.17354 55.493145 1.2001959
202.09789 56.517982 1.2090049
197.12921 54.576622 1.1688019
202.0645 56.679588 1.2044086
197.09306 54.743206 1.1640331
197.07747 54.842213 1.1613033
202.01639 56.862617 1.19902
197.04544 54.935448 1.1584247
196.99387 55.119987 1.1529372
201.79457 58.208408 1.1617417
196.64059 56.855907 1.1036592
202.33386 55.353062 1.225772
202.27866 55.535191 1.220288
202.24025 55.638565 1.2170473
202.21269 55.745342 1.213919
202.18564 55.850204 1.2108471
197.3425 53.93523 1.1702889
197.29092 53.998428 1.1677988
197.25546 54.103104 1.1645795
197.22061 54.205959 1.1614158
197.20363 54.311535 1.1585088
202.04117 56.481903 1.192677
201.99614 57.32132 1.1711932
201.94655 57.627605 1.1627537
202.42671 55.149506 1.2330118
197.39833 53.713821 1.1770984
197.36443 53.781849 1.1747798
197.32887 53.886417 1.1715178
197.29393 53.98917 1.1683123
197.25957 54.090157 1.1651615
202.18793 56.128914 1.20418
197.2372 54.192348 1.1621997
202.14502 56.285294 1.199489
197.18948 54.355865 1.1572428
202.12082 56.377575 1.1967411
197.1682 54.453415 1.1544168
202.08304 56.460598 1.1939771
197.13615 54.546597 1.1515033
197.12119 54.642204 1.1488409
197.09003 54.732319 1.1460204
197.05721 54.883446 1.141645
197.02718 54.96973 1.1389408
201.76059 58.471951 1.1378314
197.37599 53.83358 1.1742096
197.33577 54.040695 1.1682473
197.25456 54.29813 1.1602749
197.1945 54.384323 1.1570138
197.1739 54.478531 1.1542603
197.1591 54.572433 1.1516191
197.12599 54.723328 1.1472068
196.97609 55.282177 1.1303748
201.74799 58.341072 1.1389008
202.44006 54.96032 1.2338976
202.41182 55.069019 1.2306247
200.53508 54.186287 1.2202659
200.49969 54.288437 1.2170349
202.34186 55.272625 1.2241952
197.48712 53.35622 1.18802
202.29622 55.44241 1.2190565
197.42944 53.531986 1.1825174
200.40015 54.657341 1.2058631
197.39447 53.634682 1.1792798
202.24519 55.640736 1.213094
197.37732 53.740105 1.1762854
202.24442 55.750366 1.2102791
197.34337 53.839211 1.1731577
202.21202 55.805199 1.20831
197.31158 53.901955 1.1709969
202.35403 55.990788 1.2060585
202.18785 55.899132 1.2054861
197.27863 53.998367 1.1679554
202.17337 56.10038 1.2000898
197.21426 54.186455 1.1620208
202.18715 56.210361 1.1975211
202.13359 56.347454 1.193079
202.08922 56.517326 1.1879601
201.86917 58.048546 1.1449757
199.47041 57.971569 1.1048731
199.33041 58.504585 1.0887983
199.08864 59.416702 1.061252
197.54701 53.162804 1.1965482
197.51314 53.230804 1.1942037
197.47758 53.335331 1.1908795
197.44264 53.438038 1.1876128
202.30809 55.739571 1.2098547
197.33823 53.804569 1.1762975
202.24612 55.811077 1.2069445
197.30574 53.89933 1.1732796
202.21321 55.896748 1.2041559
197.27379 53.992542 1.1703107
202.17624 55.978436 1.2014025
197.2589 54.088161 1.1675676
197.22781 54.178299 1.1646937
202.10446 56.488682 1.1868944
196.86064 55.910866 1.1133437
202.78461 54.385723 1.2519662
202.50729 54.946033 1.2325749
197.60538 53.001358 1.2036146
200.5468 54.095673 1.2229153
197.57144 53.06929 1.2012584
197.5358 53.173714 1.1979078
200.48984 54.292259 1.2167736
197.50076 53.276321 1.1946152
197.46631 53.377167 1.191379
202.33488 55.383965 1.2181466
200.44948 54.487839 1.2109314
197.44385 53.479214 1.1883074
202.30214 55.545681 1.2133261
197.39598 53.642502 1.1831973
202.26413 55.630306 1.2104613
202.25476 55.728878 1.2076967
202.20857 55.80547 1.20491
197.29984 53.921909 1.1742193
202.13292 57.134628 1.1684666
202.14836 57.282269 1.1648099
202.1169 57.343201 1.1626797
202.04106 57.531425 1.1564499
196.9024 55.676605 1.1212238
202.71123 54.280094 1.2364715
200.67725 53.652416 1.2193804
202.59549 54.795128 1.2209879
197.69798 52.845032 1.1913946
202.63548 54.895199 1.2190125
200.56122 54.022175 1.2077193
200.52034 54.221462 1.2017925
202.51889 55.358402 1.20488
202.46967 55.438847 1.2019466
202.41115 55.616432 1.1963001
202.36412 55.692642 1.1935146
202.33311 55.941063 1.1864566
202.26617 56.095284 1.1812863
200.09747 55.81826 1.1527284
202.8083 54.162956 1.2460647
202.69196 54.592735 1.2325091
197.69464 52.606339 1.2000303
197.63715 52.782158 1.1943146
197.55646 52.982868 1.187531
197.55138 53.089455 1.1845777
197.51965 53.152229 1.1823446
197.49806 53.251465 1.1793052
197.46565 53.346245 1.1761997
197.45042 53.443478 1.1733236
202.42992 55.473988 1.2043099
197.42995 53.537708 1.1704379
197.39885 53.627796 1.1674811
197.35837 53.682476 1.165315
202.57153 55.822842 1.197364
202.25795 56.495533 1.1738869
202.16969 56.99155 1.1590329
202.95665 53.835167 1.2631681
200.77531 53.26165 1.240068
202.79819 54.339363 1.2465057
197.73669 52.439468 1.208528
202.74921 54.511536 1.2409073
200.65126 53.737167 1.224806
197.63278 52.714977 1.1991148
202.66766 54.8106 1.231246
200.63341 53.836872 1.221751
202.64145 54.906914 1.2281355
200.6013 53.928722 1.218658
202.55806 55.147205 1.2200545
202.51024 55.224758 1.2170742
200.52129 54.265514 1.2079881
197.25311 53.99955 1.1570922
202.32188 56.340725 1.1830864
202.99545 53.636299 1.2657366
197.61115 52.793102 1.188578
197.54205 53.084377 1.1793836
197.51057 53.17601 1.1763101
197.49055 53.268715 1.1734203
197.44707 53.417358 1.1685754
202.23434 56.769306 1.1665066
197.86597 52.05772 1.2112579
202.68362 54.663368 1.231232
202.61102 54.833096 1.225211
202.46283 55.828018 1.1951735
202.52042 56.009708 1.1912922
202.39357 55.930992 1.191043
202.47867 56.069756 1.1888576
202.43756 56.128891 1.1864603
203.022 53.701221 1.2656385
200.92455 52.937912 1.2475328
197.93813 51.899216 1.2204068
197.90414 51.967045 1.2178695
200.7785 53.384815 1.2322804
200.7402 53.540043 1.2272164
200.6788 53.713356 1.2212116
200.26971 55.256001 1.1703496
200.2473 55.316551 1.1682336
201.01077 52.557594 1.2519656
198.01689 51.744946 1.2189797
197.98285 51.812714 1.2164453
197.92905 52.023876 1.2095225
197.89427 52.124382 1.2060567
200.82086 53.217911 1.2299139
197.86008 52.223179 1.2026495
200.75209 53.4608 1.2218226
197.75781 52.576031 1.1908512
197.69464 52.757179 1.1845952
197.66145 52.907879 1.1797518
197.3772 53.817135 1.1489624
197.27568 54.07729 1.1397773
200.17432 55.708187 1.1480465
200.15453 55.760464 1.1462123
200.14149 55.79493 1.1450031
203.1658 53.208069 1.2730496
201.06807 52.3349 1.2593393
198.0916 51.527897 1.2275428
198.03993 51.590771 1.2247938
203.01399 53.687832 1.2565411
198.02153 51.699669 1.2213427
197.98619 51.801941 1.2177685
200.91046 52.903435 1.2401874
197.96288 51.905457 1.2143807
202.95761 53.995052 1.2467225
200.89288 53.001308 1.2370665
197.92862 52.004189 1.2109278
197.89668 52.066681 1.2085532
202.93182 54.161686 1.2414854
197.88025 52.166958 1.2053849
200.80962 53.238155 1.2287632
197.78328 52.445442 1.1956391
197.75197 52.535294 1.1924943
197.44585 53.518826 1.1587456
200.1416 55.780334 1.1438026
203.1461 52.795788 1.2837615
203.10526 52.985672 1.2775158
203.06088 53.086037 1.2737957
203.02242 53.187222 1.2701607
201.0858 52.274136 1.2610073
202.99472 53.291897 1.2666224
198.14604 51.364571 1.233322
198.11189 51.432217 1.230737
202.98271 53.480015 1.2609577
201.00948 52.543396 1.2518123
202.94133 53.571842 1.2575397
201.00096 52.648968 1.2486006
200.96812 52.742397 1.2452934
198.0228 51.743389 1.2200944
197.98843 51.842022 1.2166088
200.90732 52.993427 1.2369111
197.9343 52.00322 1.2109487
197.91808 52.101654 1.2078021
200.84595 53.166748 1.2307676
197.88559 52.194309 1.2045236
197.82213 52.375164 1.1981237
197.77254 52.521931 1.192965
201.16075 51.975193 1.2639763
201.13565 52.081615 1.2604569
201.11609 52.188148 1.2570366
201.06935 52.355057 1.2513806
201.05089 52.456467 1.2481275
201.01807 52.549904 1.2448385
198.04396 51.543976 1.2188401
201.0101 52.651775 1.2417659
198.00983 51.642796 1.2153723
200.99844 52.715996 1.2397064
203.01396 53.901279 1.2428632
200.95006 52.89822 1.2335804
202.96535 53.978489 1.2397488
200.91946 52.984028 1.2305514
200.88939 53.068367 1.2275743
202.96284 54.181816 1.2338634
202.93143 54.23061 1.2318823
197.78465 52.321476 1.1917262
202.83894 54.564426 1.2205888
202.85358 54.635715 1.2188115
202.80945 54.702061 1.2160919
202.76604 54.767357 1.2134155
202.65485 55.02383 1.2039981
202.59244 55.37516 1.1927568
200.48485 54.585747 1.176532
197.4259 53.897232 1.1398525
200.34634 55.073269 1.1599749
203.31995 52.654381 1.2815853
203.28993 52.762596 1.2779027
201.22159 51.781361 1.2681477
201.20154 51.889881 1.2646399
201.16667 51.989998 1.261102
198.23428 50.971928 1.2364837
198.20023 51.039646 1.2338976
201.13492 52.163162 1.2555093
198.16434 51.143745 1.2302257
201.10152 52.258327 1.2521416
198.12906 51.24604 1.2266172
201.07852 52.355854 1.2488974
198.10582 51.349567 1.223195
201.06079 52.453648 1.2457427
198.07162 51.448322 1.2197089
203.1144 53.624081 1.2497549
201.03192 52.612778 1.2406089
198.02336 51.611118 1.2141116
203.06496 53.702656 1.2465712
201.00081 52.700104 1.2375101
197.99057 51.705498 1.210778
203.03981 53.793179 1.2434902
200.97023 52.785919 1.2344648
197.95831 51.798332 1.2074988
197.93755 51.892284 1.2043992
200.94296 52.966587 1.2287376
197.90622 51.98209 1.2012247
202.93608 54.104195 1.232584
197.86226 52.13026 1.1961296
202.89944 54.180428 1.2297041
200.70879 53.68528 1.2036381
202.65292 54.878166 1.2049829
203.30782 52.581505 1.2831873
203.29387 52.696022 1.2795755
201.19495 51.816544 1.2668808
198.27763 50.805195 1.2430508
198.24358 50.872913 1.2404418
203.21162 52.966759 1.2701328
201.15349 51.985657 1.2611642
198.2077 50.977016 1.2367331
203.19905 53.074471 1.2667452
198.18396 51.082378 1.2332098
201.11224 52.184677 1.2545751
198.16634 51.18734 1.2298106
201.08975 52.280491 1.2513548
198.13205 51.285992 1.2262905
198.10008 51.348434 1.2238744
203.20589 53.483761 1.2548746
201.05157 52.435741 1.2461046
198.06677 51.444401 1.2204512
201.03015 52.527103 1.2430341
198.04514 51.541531 1.2172079
203.09291 53.631161 1.2484834
198.01282 51.6343 1.2138964
203.05882 53.714901 1.2454045
200.98375 52.703178 1.2370231
197.99747 51.729507 1.2108246
197.96603 51.819221 1.2076191
202.98892 53.942127 1.2374632
202.97029 54.375881 1.2244087
202.73862 54.73653 1.2095921
202.67935 54.867489 1.2046672
197.49715 53.834946 1.1399449
200.0929 56.017658 1.123549
203.45935 52.127697 1.2860076
203.45831 52.339336 1.2797334
203.40219 52.433643 1.275937
203.35732 52.531647 1.2722335
203.3284 52.636021 1.2686288
198.34283 50.638027 1.2380711
198.30872 50.705688 1.2354579
203.27975 52.805016 1.262759
198.29013 50.814426 1.2319098
203.25224 52.90461 1.2593209
198.25464 50.916538 1.2282537
203.22525 53.002506 1.2559419
198.21976 51.016895 1.2246602
203.19872 53.098747 1.2526203
201.13335 52.10635 1.2448291
198.18544 51.11554 1.2211276
203.11449 53.338821 1.2440102
201.04355 52.438972 1.2333833
198.06616 51.463833 1.2086887
197.95905 51.793072 1.1970317
197.92894 51.879124 1.1939468
203.12166 54.013767 1.2241887
203.07593 54.081764 1.2213567
200.64075 54.053764 1.1784124
200.57996 54.276173 1.1707458
200.47308 54.650925 1.157748
200.44786 54.739464 1.1546774
199.95802 56.485947 1.0942496
203.46555 51.876926 1.2889105
203.4097 52.183128 1.2787974
203.3806 52.289478 1.2751138
201.3223 51.429989 1.2644747
198.4015 50.415554 1.2432597
201.2756 51.596909 1.2586757
198.36041 50.595104 1.2371825
201.25717 51.698322 1.2553275
198.32484 50.697144 1.2335137
203.24518 52.758022 1.2587588
201.23419 51.795849 1.2520148
198.30699 50.801941 1.2300746
203.23351 52.862335 1.2554433
201.2019 51.887581 1.2487111
198.27249 50.900417 1.2265307
203.17482 53.010437 1.2499938
198.21809 51.061359 1.2207743
203.14987 53.102566 1.2468075
198.20171 51.159653 1.2175549
198.16908 51.252159 1.2142221
201.0959 52.310261 1.2342416
198.13696 51.34317 1.210943
198.05554 51.579258 1.2024697
203.0551 53.716118 1.2268454
203.55606 51.603725 1.2966293
203.50912 51.709267 1.2926348
203.50471 52.042915 1.2825309
203.44968 52.13546 1.278785
198.42828 50.321072 1.2452954
203.36745 52.4062 1.2692077
201.30916 51.425388 1.262605
203.35489 52.513912 1.2657505
201.28589 51.524784 1.2592101
198.36826 50.530186 1.2379589
201.26794 51.624413 1.2559016
198.3333 50.630478 1.2343324
203.30141 52.708061 1.2589787
201.23576 51.71619 1.2525795
198.31592 50.733467 1.2309327
203.26796 52.762436 1.2567586
198.28384 50.795788 1.2284979
203.22807 52.848103 1.253485
198.26155 50.894413 1.2251431
201.17641 51.96291 1.2441249
198.22852 50.98856 1.2217349
198.19601 51.081173 1.2183821
201.13953 52.142918 1.2380687
198.18045 51.176235 1.2152526
203.10751 53.194691 1.2409563
198.14886 51.265793 1.2120075
198.0883 51.409863 1.2066166
203.04524 53.517155 1.2301744
200.99162 52.658058 1.2199959
203.00455 53.923428 1.2172519
202.8752 54.248394 1.2052191
203.72272 51.472351 1.3047084
203.67992 51.580265 1.3006516
203.66757 51.659458 1.2980074
203.66238 51.783482 1.2941127
203.60577 51.877583 1.2902389
203.55025 51.969913 1.286438
203.49576 52.060528 1.282708
201.41524 51.070087 1.276783
198.48235 50.053391 1.2567903
203.45999 52.120003 1.28026
203.43204 52.221355 1.2766634
201.36861 51.237019 1.2708493
198.42407 50.228363 1.250407
203.40457 52.320961 1.2731293
201.3502 51.338436 1.2674179
198.40604 50.33519 1.2468156
203.36298 52.410816 1.2696474
201.31746 51.431889 1.26398
198.37119 50.435558 1.2431291
203.35114 52.515118 1.2662419
201.295 51.527706 1.2606493
198.34825 50.537148 1.2396132
203.3177 52.569496 1.2639906
198.31627 50.599545 1.2371413
203.29214 52.663124 1.2606729
201.26643 51.686932 1.2552673
198.29971 50.699677 1.2337812
203.26701 52.755219 1.2574099
201.24969 51.780231 1.2521136
198.26678 50.7939 1.2303168
203.22827 52.83791 1.2541975
201.21915 51.866058 1.2489483
198.23438 50.886578 1.2269087
203.18037 53.014835 1.2479353
203.14001 53.254395 1.2398834
202.98878 54.179028 1.2088853
200.842 53.278805 1.199037
200.34567 55.12048 1.1338904
200.26231 55.42099 1.1232189
203.73079 51.381138 1.3027761
203.7133 51.584358 1.2962152
203.65225 51.798435 1.2885627
203.59729 51.888844 1.2848239
201.46597 50.87154 1.279109
198.53282 49.855598 1.2594178
203.56122 51.948185 1.28237
198.49881 49.923332 1.256741
203.50793 52.035835 1.2787454
201.41939 51.038483 1.2731593
198.47461 50.030582 1.2530183
203.50496 52.148952 1.2752106
201.40102 51.1399 1.2697173
203.45314 52.233261 1.2717143
201.36829 51.233364 1.2662709
198.42177 50.237793 1.24572
203.4507 52.342937 1.268295
201.34586 51.329185 1.2629308
203.41698 52.397194 1.2660385
203.4149 52.504162 1.262709
201.31734 51.488422 1.2575322
201.30061 51.581726 1.2543689
198.31744 50.596157 1.2328733
201.2701 51.667557 1.2511958
198.28506 50.688847 1.2294568
203.3251 52.767696 1.2530342
203.29156 52.85006 1.2499156
203.41951 53.091652 1.2447004
203.24602 52.989639 1.2448263
203.37228 53.161957 1.241715
203.32584 53.231106 1.2387787
203.28015 53.299133 1.2358903
203.25011 53.343872 1.2339908
203.17078 53.571014 1.2256186
201.02213 52.57233 1.2190289
203.08014 53.836292 1.2158756
200.54448 54.430466 1.1535168
200.47177 54.685959 1.1443869
200.46524 54.731709 1.1428647
200.08963 56.118008 1.0936536
203.8533 51.25489 1.2977259
203.78259 51.429852 1.2912059
203.69554 51.629948 1.2836437
203.64061 51.720367 1.2799593
198.57568 49.688248 1.2549654
203.57617 51.880981 1.2739823
201.46251 50.870491 1.2684826
198.5349 49.867947 1.2488137
203.54832 51.980503 1.2704853
198.4995 49.970089 1.2451081
203.49652 52.064823 1.2670399
201.41145 51.065388 1.2616938
203.49411 52.174503 1.2636698
201.38905 51.161217 1.2584021
203.45834 52.335735 1.2581646
201.35098 51.316494 1.2530383
198.39336 50.334629 1.2322282
203.43265 52.427723 1.2549331
201.32964 51.407871 1.2498996
203.40739 52.518227 1.2517543
201.31335 51.499607 1.2468369
198.33914 50.52425 1.2255456
198.29211 50.7089 1.2191368
203.32683 52.743767 1.2435306
198.23166 50.853008 1.2137287
203.41586 52.993549 1.2374734
203.26317 53.669552 1.2143441
203.22079 53.729343 1.2118046
203.18008 53.957115 1.2041951
200.41699 54.908318 1.1280465
200.33141 55.234852 1.1166717
203.81351 50.904045 1.2890974
203.76526 51.22105 1.2786328
203.76068 51.343025 1.2748336
203.7307 51.449158 1.2711055
203.6861 51.545166 1.2674496
198.6024 49.588837 1.2446688
201.53818 50.709682 1.2580965
198.57822 49.696091 1.2410007
198.56021 49.802929 1.2374456
203.55717 51.897854 1.2545856
201.48193 50.902412 1.2512976
198.52541 49.903313 1.233815
203.54021 51.999451 1.2512075
201.44972 50.994167 1.2479725
198.49117 50.001987 1.2302458
203.49509 52.155354 1.2457139
198.45404 50.167465 1.2245893
203.46959 52.247379 1.2424896
203.46802 52.351254 1.2392918
201.37401 51.332554 1.2364093
198.38878 50.354393 1.2178211
198.36787 50.448212 1.2146168
203.38742 52.576786 1.2310958
203.30986 53.074734 1.2146297
203.20613 53.599831 1.1969097
203.16632 53.74168 1.1919311
200.78453 53.693691 1.1547321
200.4631 54.821934 1.1150582
200.44839 54.858368 1.1137067
203.87154 50.679672 1.2836217
203.85052 50.79895 1.2796803
203.82335 50.996693 1.2732632
203.81882 51.118668 1.269492
203.77354 51.216541 1.2658288
203.74429 51.320835 1.262216
198.69398 49.298252 1.2463009
198.66 49.366005 1.2437245
203.69507 51.4897 1.2563376
201.5961 50.485981 1.2546734
198.62422 49.470146 1.2400165
203.66724 51.58923 1.2528911
201.56281 50.581184 1.2512746
198.60059 49.575527 1.2364565
203.62523 51.678955 1.2495252
201.53992 50.67873 1.2479638
198.58307 49.680504 1.2330025
203.59851 51.775162 1.2461965
201.52229 50.776543 1.2447256
198.54887 49.77919 1.2294841
203.55344 51.93108 1.2407748
201.47926 50.929749 1.2394176
198.49498 49.940468 1.2237647
203.52795 52.023113 1.2375917
198.47891 50.038925 1.2205307
203.52641 52.126987 1.2344157
198.44656 50.13163 1.2172222
203.47832 52.202759 1.2313801
198.42569 50.225452 1.2140554
198.39429 50.315136 1.2108529
203.44588 52.352551 1.2263377
200.96136 53.051189 1.1671083
200.84454 53.412384 1.1543586
203.93651 50.652962 1.2735758
204.08211 50.816971 1.2708161
203.89314 50.842262 1.2672665
203.85822 51.070328 1.2599216
198.70346 49.198669 1.2397985
203.76384 51.33506 1.2505999
201.63979 50.318092 1.2496663
198.66771 49.302814 1.2361517
203.71112 51.420952 1.2472489
201.60651 50.4133 1.2463237
198.64409 49.408203 1.2326469
201.58363 50.510853 1.2430646
198.60945 49.508713 1.2291255
203.63274 51.601528 1.2406836
201.56602 50.608669 1.2398754
198.59241 49.611881 1.2257845
201.53737 50.767838 1.234686
198.53854 49.77317 1.2201589
201.50636 50.855202 1.2316118
198.52249 49.871632 1.2169735
203.52342 51.932156 1.2291684
201.47589 50.941055 1.2285907
198.49016 49.964344 1.2137197
198.46931 50.058174 1.210602
198.45424 50.151699 1.2075788
203.40701 52.332855 1.2154499
203.53262 52.503254 1.2122035
203.37758 52.752785 1.2024406
203.33452 52.816921 1.1998839
201.79193 49.749878 1.2642366
201.73195 49.956337 1.2571518
198.77014 48.93372 1.2454718
198.73625 49.001564 1.2429402
201.70029 50.129478 1.2514781
198.71808 49.1105 1.2393954
201.68176 50.23082 1.2481573
198.69447 49.215889 1.2358795
201.65868 50.328274 1.2448879
198.65984 49.316402 1.2323526
201.64085 50.425999 1.2416863
198.64282 49.419571 1.2289982
198.61093 49.482056 1.2266569
201.59752 50.579052 1.2364504
198.58897 49.580868 1.2233629
203.60707 51.757679 1.2297608
201.55 50.758041 1.2303727
203.57309 51.841465 1.2267475
203.53508 51.921238 1.2237971
203.49437 52.063526 1.2189236
203.50705 52.607674 1.2027018
203.46332 52.671513 1.2001497
203.42027 52.734356 1.1976376
203.47758 52.82917 1.1956018
203.28899 52.969639 1.1886606
204.09264 50.289047 1.2777007
204.03287 50.469784 1.2713718
203.98712 50.692207 1.2639943
203.95729 50.796371 1.2604152
201.79977 49.763958 1.2596351
198.82271 48.735214 1.2466323
198.78882 48.803059 1.2440872
203.91713 50.970539 1.2545741
201.75294 49.930756 1.2539173
198.77066 48.911999 1.2405366
203.86394 51.056229 1.2512062
201.73442 50.032097 1.2505903
198.73553 49.014343 1.2369338
203.83621 51.15398 1.2478511
201.71133 50.129555 1.2473129
198.70099 49.114929 1.233393
203.80898 51.250092 1.244553
201.67897 50.221226 1.2440726
198.67839 49.216709 1.2299924
198.64659 49.279274 1.2276373
203.77263 51.411255 1.2391601
201.65021 50.380341 1.2388535
198.63037 49.379578 1.2243756
203.74658 51.503189 1.2360052
198.59773 49.474007 1.2210481
203.70686 51.585567 1.2329361
201.60271 50.559334 1.2327585
198.57668 49.569553 1.2178582
203.67249 51.669239 1.2299072
201.57259 50.643623 1.2297736
198.56146 49.664783 1.2147641
203.63406 51.748878 1.2269399
198.53015 49.754539 1.2115971
204.13727 50.120811 1.2795427
204.0775 50.301552 1.2732192
204.04668 50.409569 1.2695144
201.88913 49.383049 1.2674667
204.03178 50.523979 1.2658602
201.85376 49.485126 1.2638707
204.0121 50.633686 1.2622743
198.86726 48.567291 1.2459639
198.83337 48.635139 1.243416
203.96181 50.802315 1.2564576
198.81522 48.74408 1.2398763
201.76422 49.857834 1.2513431
198.78011 48.846428 1.236276
203.8907 50.991222 1.2497171
201.74619 49.95739 1.2480863
198.75702 48.949989 1.2328223
203.87798 51.095493 1.2463995
201.72362 50.053135 1.2448747
198.72298 49.048798 1.2293446
203.81734 51.243042 1.2410573
201.69485 50.212254 1.2396705
198.67497 49.21167 1.2237352
203.79129 51.33498 1.2379069
201.67801 50.305489 1.2366211
198.64233 49.306103 1.22041
203.7657 51.42543 1.234808
201.64737 50.391251 1.2335858
198.62129 49.401653 1.2172273
203.72655 51.50639 1.2317871
203.69267 51.588673 1.2288071
198.55843 49.582825 1.2108436
200.98552 52.874111 1.1491382
204.09827 50.244949 1.2606273
201.93547 49.214581 1.2592577
204.09348 50.364918 1.2569239
201.91534 49.323025 1.2556725
204.06343 50.469036 1.2533203
201.88042 49.423073 1.2521183
198.9032 48.394772 1.2384267
198.86932 48.462624 1.235863
204.00793 50.634853 1.247466
201.84856 49.596119 1.2464012
198.85117 48.57156 1.2322925
203.99425 50.7425 1.2440019
201.81509 49.691223 1.2430189
203.96611 50.840168 1.2406219
198.78154 48.774506 1.2251017
203.93846 50.936195 1.2372991
201.77425 49.88641 1.2364959
201.74529 50.045441 1.2312466
203.86073 51.180977 1.2287203
201.72359 50.13665 1.2281592
203.82544 51.265965 1.2256166
201.69287 50.222374 1.2251021
201.67665 50.312428 1.2221322
198.61464 49.317867 1.2061429
203.76128 51.434456 1.219551
201.05325 52.620052 1.1429017
204.29068 49.623531 1.2744979
204.25793 49.736938 1.2705861
204.21344 49.926006 1.2642154
204.19261 50.039543 1.2604772
201.99342 48.990101 1.2593719
204.15169 50.139942 1.2568364
201.97331 49.098549 1.2557983
204.12167 50.244064 1.2532456
201.94853 49.202835 1.2522807
198.97859 48.17585 1.2390069
198.94466 48.243629 1.2364548
204.06621 50.409897 1.2474127
201.9066 49.371658 1.246559
198.90897 48.347801 1.2327781
204.05255 50.517544 1.2439593
201.88304 49.47089 1.2432122
198.87389 48.450161 1.229165
204.0097 50.606987 1.2406205
201.86481 49.570354 1.2399378
203.9968 50.711254 1.2372805
201.83234 49.661972 1.2366881
198.81682 48.65255 1.2222047
203.95982 50.872345 1.2318662
203.91913 50.956055 1.2287327
201.78174 49.912224 1.2283791
203.89328 51.046467 1.2256179
203.85854 51.130039 1.222577
201.73483 50.088013 1.2223732
203.81973 51.209557 1.2195981
203.77783 51.351658 1.2146837
203.73083 51.518478 1.2089471
201.19424 52.093224 1.1537807
204.25682 49.757286 1.2663256
204.22566 49.865227 1.2625883
202.03661 48.8218 1.2620965
204.1951 49.97123 1.2589183
201.98164 49.030315 1.2549535
199.02162 48.008118 1.2424798
204.09969 50.235687 1.2494811
204.05643 50.326878 1.2460748
198.94577 48.290051 1.2327993
198.91109 48.39048 1.2292383
204.0014 50.520737 1.2393763
198.87698 48.489201 1.2257376
203.96501 50.6819 1.2339449
201.82286 49.642815 1.2340111
198.82324 48.650528 1.2200462
203.92943 50.768433 1.2307929
201.79192 49.730202 1.2309012
198.80727 48.749004 1.2168196
203.90388 50.858894 1.2276689
198.77501 48.84174 1.213528
201.75494 49.910107 1.2248921
198.74327 48.932976 1.2102895
198.71201 49.022751 1.2071025
198.67894 49.173306 1.2020426
198.64883 49.259266 1.1989882
200.96086 52.881451 1.1229463
204.3325 49.577244 1.2695308
204.30113 49.685131 1.2657586
204.27036 49.791088 1.2620544
204.24016 49.895172 1.2584163
204.20351 49.954288 1.2560734
199.06609 47.891109 1.2467723
204.17438 50.055397 1.2525421
201.98434 49.003624 1.253889
199.03023 47.99511 1.2430564
204.13092 50.146515 1.2491156
201.96591 49.104977 1.2505019
199.00648 48.100349 1.2394743
201.93311 49.198383 1.2471561
198.97174 48.20071 1.2358863
204.06578 50.334839 1.2423838
201.91061 49.294144 1.243884
198.92262 48.366123 1.2300887
204.02922 50.495987 1.2368958
198.88934 48.461998 1.2266599
204.00304 50.587902 1.2336899
201.85098 49.540634 1.2354369
198.85658 48.556282 1.2232876
201.83463 49.632309 1.2323779
198.83539 48.651695 1.2200447
201.80457 49.716621 1.2293514
198.80359 48.742874 1.2167819
203.91325 50.84687 1.2244302
198.77229 48.832592 1.213571
203.8714 50.988983 1.2194539
198.72836 48.98061 1.2083833
204.46254 49.075294 1.2787025
204.41371 49.180161 1.2748009
204.38483 49.377663 1.2683314
204.35347 49.485558 1.2645802
204.30734 49.583138 1.26094
202.09337 48.6418 1.2590175
199.13454 47.61985 1.2491956
199.1006 47.687599 1.2466415
204.23677 49.861374 1.2514098
202.05153 48.810646 1.2532477
199.08228 47.796379 1.2430447
204.19818 49.955219 1.2479893
202.01814 48.905777 1.2498603
199.04704 47.898579 1.2394145
204.1701 50.05291 1.2445973
201.99516 49.003258 1.2465457
199.02382 48.001995 1.2359141
204.15227 50.154442 1.24123
201.96288 49.094955 1.2432791
198.98967 48.100658 1.2324076
204.12967 50.323746 1.2357142
198.94147 48.263294 1.22674
198.90872 48.357586 1.2233874
204.07697 50.505974 1.2293823
201.87283 49.427303 1.2318153
198.87651 48.450333 1.2200893
201.85689 49.517452 1.228824
198.85576 48.544186 1.2169174
204.01213 50.674316 1.2233077
198.82448 48.633911 1.2137253
198.78056 48.781933 1.2085665
198.75049 48.867908 1.2055064
201.24112 52.141075 1.1396508
204.4133 49.200546 1.2722549
204.38211 49.308479 1.2684817
202.22345 48.277905 1.2698532
202.1877 48.379768 1.2662033
204.28096 49.692719 1.2551889
202.10558 48.646389 1.2568111
199.12625 47.6283 1.2462192
202.07211 48.741478 1.2534026
199.09102 47.730499 1.2425661
202.05396 48.840954 1.2500743
199.06781 47.83392 1.239045
204.1965 49.985794 1.244947
202.02155 48.93259 1.2467874
199.03368 47.932583 1.2355164
204.1739 50.155098 1.2393999
201.97839 49.085697 1.2414505
204.14734 50.246952 1.2361885
201.96164 49.178944 1.2383345
198.96387 48.192249 1.2265129
204.12125 50.337334 1.2330292
201.93109 49.264736 1.235254
198.93159 48.284935 1.2231952
198.89981 48.376122 1.219931
204.05643 50.505684 1.226916
198.88486 48.469666 1.2168313
198.82465 48.61388 1.2115283
201.03392 52.872364 1.1111889
204.75447 48.793663 1.2759764
204.56641 48.692287 1.2763615
204.48813 48.994526 1.2657322
202.26662 48.0541 1.2622286
202.21085 48.262188 1.2548826
199.2112 47.224243 1.2428876
204.33913 49.47802 1.248376
202.16345 48.428673 1.2489642
204.31027 49.577339 1.2448366
202.12979 48.523655 1.2454895
199.12379 47.502995 1.2328589
204.28192 49.674976 1.2413574
202.09673 48.61692 1.2420774
199.1006 47.606415 1.2292751
204.26871 49.779247 1.2378951
202.07883 48.714573 1.2387527
199.0665 47.705086 1.2256781
204.21678 49.932037 1.2323384
202.03535 48.867516 1.2333167
199.01834 47.867733 1.2198685
204.18063 50.018414 1.2290963
202.0042 48.954781 1.2301208
198.98563 47.962032 1.2164294
204.15454 50.108795 1.225878
198.95345 48.05479 1.2130461
204.08977 50.277157 1.2196429
204.06612 50.721756 1.2053647
204.06549 50.878716 1.2004386
201.34457 51.701733 1.1342846
201.30894 51.740353 1.1325461
204.6378 48.538322 1.2859671
204.60439 48.651562 1.2818552
204.55885 48.840412 1.2751579
204.52705 48.9482 1.2712439
202.31125 47.885731 1.2700096
204.49585 49.054062 1.2674004
204.46523 49.158054 1.2636251
202.25548 48.093815 1.262542
204.4238 49.33202 1.2574639
202.20808 48.2603 1.256524
199.20367 47.2323 1.241784
204.40451 49.436855 1.2538406
202.17442 48.355278 1.2529863
204.36588 49.528839 1.2503195
202.15605 48.454659 1.2495499
204.36211 49.638672 1.2467821
202.12346 48.546188 1.2461383
199.11118 47.536591 1.2306917
204.32391 49.799629 1.2410836
202.07999 48.699131 1.2406107
199.06302 47.699234 1.2247831
204.28244 49.883083 1.2377878
202.04883 48.786392 1.2373568
202.0323 48.877987 1.2341961
199.00917 47.88895 1.2179275
202.00209 48.962215 1.2310532
204.18082 50.136047 1.2281775
198.94615 48.06987 1.2112063
201.01192 52.84174 1.0926113
204.64816 48.48254 1.2875431
204.58696 48.662884 1.2808154
204.57085 48.779186 1.2768623
202.35498 47.716858 1.2739729
204.49379 48.980625 1.2692039
204.45259 49.154633 1.2630074
202.25185 48.091431 1.2603952
199.24739 47.063622 1.2433965
204.42352 49.25391 1.25938
204.40973 49.359833 1.2557942
204.3678 49.630627 1.2465168
202.12379 48.53027 1.2443686
204.34064 49.722385 1.2431595
202.10686 48.623436 1.2411354
204.29976 49.80439 1.239885
202.07613 48.709129 1.2379112
204.26427 49.887768 1.2366557
202.04591 48.793358 1.2347424
199.03763 47.815384 1.2161006
201.22676 52.093143 1.116606
201.0713 52.717148 1.0942566
204.9563 48.161945 1.3018403
204.71608 48.16655 1.2975944
204.69878 48.288387 1.293424
204.63759 48.468735 1.2866436
204.62149 48.585033 1.2826699
202.40556 47.522831 1.2786379
204.5903 48.690899 1.2787706
202.38509 47.631077 1.2748456
204.55969 48.794891 1.2749406
202.34982 47.730923 1.2710681
204.5183 48.968864 1.2687007
202.30246 47.897411 1.2649645
199.3269 46.87756 1.2466217
204.48909 49.068115 1.2650456
202.28363 47.998573 1.2614255
204.46042 49.165688 1.2614528
199.25671 47.079865 1.2389895
204.43225 49.261627 1.2579207
202.22758 48.187351 1.254465
199.23381 47.181343 1.235371
199.20187 47.243698 1.2328427
204.39442 49.422626 1.2521545
202.18877 48.342216 1.2488768
199.18533 47.343716 1.2293794
204.36749 49.51442 1.2487752
202.1575 48.42942 1.2455697
199.15245 47.437851 1.2258241
204.34102 49.604744 1.2454507
202.12679 48.515118 1.2423197
199.12009 47.530445 1.2223268
199.0992 47.624153 1.2189896
199.08406 47.717556 1.2157606
199.02362 47.861515 1.2101506
204.31995 50.164352 1.2272922
204.2818 50.237358 1.2243192
201.26265 52.023964 1.1159706
205.00793 47.961777 1.3031918
204.757 47.960693 1.2989279
204.72388 48.074001 1.294763
204.67882 48.262943 1.287992
204.64728 48.370796 1.2840277
202.4726 47.329468 1.2798386
202.43666 47.431221 1.2759925
202.40141 47.531071 1.2722185
204.55499 48.760372 1.2700778
202.36902 47.703812 1.266179
199.38995 46.68119 1.2476174
204.52594 48.859653 1.2664279
202.33525 47.798729 1.2625868
204.51218 48.965584 1.2628289
202.31187 47.896019 1.2590977
199.31963 46.883362 1.2399937
204.48402 49.061523 1.2593005
202.27924 47.987511 1.2556335
199.30229 46.986237 1.2364306
199.27029 47.048523 1.2339048
204.45584 49.228062 1.2535303
202.24043 48.142384 1.2500517
199.23688 47.144245 1.2302934
204.42883 49.319847 1.2501535
202.21866 48.233532 1.2467848
199.2151 47.241123 1.2268445
204.4165 49.418442 1.2468117
199.19919 47.337673 1.2235065
199.16718 47.428616 1.2200706
199.13565 47.518101 1.2166895
204.38541 49.775394 1.234946
204.32503 50.095539 1.2237471
201.10078 52.496151 1.0922982
204.80038 47.791405 1.2987208
204.76727 47.90472 1.2945716
204.72223 48.09367 1.2878277
204.70108 48.207161 1.2838787
199.50337 46.341316 1.2533362
199.46924 46.408821 1.2506162
204.58847 48.585545 1.2699879
199.4505 46.517277 1.2468678
204.54092 48.788006 1.2627742
202.35526 47.727047 1.2586604
199.39133 46.722233 1.239375
204.52754 48.892281 1.2592503
202.32262 47.818546 1.2552084
204.48976 49.053288 1.2535141
202.28384 47.973427 1.2496487
199.30807 46.982681 1.229715
204.46284 49.145088 1.2501509
202.26207 48.064575 1.2463948
199.27502 47.07666 1.2261775
204.44586 49.240925 1.2468314
202.24538 48.156094 1.2432165
199.25349 47.171783 1.2228022
204.4104 49.324314 1.2435868
202.21501 48.240231 1.2400359
199.23778 47.266605 1.2195364
199.20609 47.355938 1.2161691
199.11159 47.675564 1.2044462
204.83546 47.54884 1.28988
204.81323 47.667889 1.2857319
202.5623 46.92569 1.2693974
202.54185 47.033943 1.2656214
202.50662 47.133797 1.2618492
199.58278 46.117935 1.2422652
204.65036 48.357235 1.2611098
202.47426 47.306545 1.2558283
204.6214 48.456539 1.257466
202.44049 47.40147 1.2522377
199.48827 46.39394 1.2318895
204.59297 48.554161 1.2538843
202.41714 47.49876 1.2487562
199.47025 46.498466 1.228274
204.5748 48.655666 1.2503613
199.43565 46.596703 1.2245642
199.40355 46.658871 1.2220362
204.55167 48.824978 1.2446117
199.3811 46.757244 1.2185366
204.52475 48.916779 1.2412405
202.32397 47.836288 1.2364633
199.36456 46.855286 1.2151518
204.49831 49.007111 1.237924
202.30728 47.927807 1.2332815
199.33186 46.947567 1.2116631
202.2769 48.011948 1.230091
199.29967 47.038353 1.2082307
199.27881 47.130253 1.2049632
199.23409 47.277557 1.1995268
199.20357 47.363094 1.1962894
204.90543 47.393452 1.294777
204.87233 47.506775 1.2906032
204.82732 47.695728 1.2838298
204.79582 47.803585 1.2798569
202.62088 46.762798 1.272658
204.76492 47.909519 1.2759556
199.62582 45.948883 1.2432542
204.70366 48.193192 1.265903
202.51743 47.137173 1.2589759
204.67462 48.29248 1.2622451
199.54851 46.229488 1.2330033
204.64612 48.390091 1.2586497
199.51335 46.329426 1.2292123
204.61812 48.486065 1.255115
199.47876 46.427662 1.2254854
204.595 48.655376 1.2493622
202.38896 47.575783 1.2428131
199.44095 46.592438 1.2196053
204.5681 48.747185 1.245979
199.40771 46.686256 1.2160424
204.55113 48.843021 1.2426512
202.35052 47.758453 1.2363584
199.37502 46.778542 1.2125376
202.32018 47.842598 1.2331527
199.35374 46.87196 1.2092068
204.57124 49.23064 1.2308223
199.2773 47.108543 1.2003573
199.22728 47.280663 1.1940221
204.88898 47.323017 1.3001086
204.85484 47.517689 1.2932827
204.83904 47.634018 1.2892929
204.80814 47.739952 1.2853398
202.62813 46.695194 1.2761576
204.77783 47.844009 1.2814573
204.74692 48.023628 1.2751706
202.56059 46.967808 1.2662165
199.59163 46.06039 1.2373908
204.70418 48.228855 1.267844
202.50352 47.160034 1.2590238
199.55647 46.160328 1.2335448
204.67606 48.324806 1.2642608
202.48547 47.257603 1.2555844
204.64795 48.491352 1.2584424
202.44176 47.410404 1.2498986
204.62099 48.583145 1.2550131
202.41045 47.497581 1.2465314
199.4509 46.517166 1.2201992
204.60869 48.681747 1.2516526
202.39378 47.5891 1.2433103
199.41821 46.609455 1.2166435
204.56844 48.76236 1.2483197
199.39694 46.702877 1.213273
199.38142 46.796009 1.2100233
198.79854 49.071358 1.1266779
204.98187 47.019859 1.3146505
204.9649 47.141739 1.3104409
204.9304 47.336357 1.3035641
204.91438 47.452667 1.2995507
202.72366 46.402588 1.2869376
204.86787 47.550114 1.2954959
202.70302 46.510738 1.2830853
204.83749 47.65416 1.2915697
202.66759 46.610485 1.2791897
199.72987 45.588234 1.2500718
204.81148 47.836559 1.2852569
202.61996 46.776814 1.2729331
199.6767 45.763912 1.2434036
204.78235 47.935829 1.281508
202.58617 46.871704 1.269225
204.75374 48.033421 1.2778232
202.56766 46.971004 1.2656974
199.61717 45.968544 1.2356868
204.72565 48.129375 1.2742008
202.54463 47.066498 1.2621958
204.68793 48.290398 1.2683196
202.50557 47.22123 1.2564852
199.53351 46.228577 1.2257128
204.66106 48.382206 1.264854
202.47417 47.30835 1.253073
204.64412 48.47805 1.2614684
199.47862 46.417385 1.2185934
204.6087 48.561451 1.2580898
202.42229 47.481976 1.2464966
199.46272 46.51207 1.2152663
199.43089 46.601257 1.21178
199.33588 46.920383 1.1996998
205.02266 46.813492 1.3262539
204.9558 47.121563 1.3149914
204.92448 47.229462 1.310869
202.79062 46.208553 1.2951314
204.90916 47.34383 1.3069018
202.75453 46.3102 1.2910993
204.86363 47.439526 1.3028455
202.72923 46.414192 1.2872361
202.68645 46.582539 1.2809409
199.73975 45.566692 1.2467325
204.8091 47.721268 1.2926946
202.65253 46.677361 1.2771738
199.72107 45.672916 1.2429476
204.79057 47.824432 1.2890099
202.61922 46.770473 1.2734746
199.68575 45.77269 1.2389921
204.75285 47.914898 1.2852954
202.59621 46.865967 1.269932
199.651 45.870766 1.2351035
204.72514 48.081463 1.2793958
202.55717 47.020699 1.2641524
199.61288 46.035286 1.2290345
204.71272 48.181545 1.2759465
202.52577 47.107822 1.2606859
199.57951 46.128952 1.2253164
204.68633 48.271885 1.2724909
199.54666 46.221085 1.2216588
199.52522 46.314365 1.2182215
202.45787 47.369884 1.2508571
199.49333 46.403492 1.2146807
199.44839 46.550564 1.2090105
199.39809 46.722412 1.2024351
198.98199 48.098068 1.1494955
205.00694 46.743259 1.3317108
204.97328 46.938 1.3247188
204.96809 47.059963 1.3207169
202.79811 46.14082 1.2985116
204.90726 47.270031 1.3125932
202.77283 46.244816 1.2946045
204.89166 47.458023 1.3062441
202.73006 46.413162 1.2882363
199.8006 45.402187 1.2509485
204.8627 47.557323 1.3023989
202.70602 46.512119 1.2845188
199.76466 45.503704 1.246868
204.84901 47.663258 1.2987053
202.67264 46.60519 1.2807673
204.82094 47.759216 1.2949877
202.63985 46.696594 1.2770828
204.78326 47.920242 1.2889731
202.60083 46.85133 1.2712362
199.65652 45.866081 1.2327785
204.75642 48.012054 1.2854164
202.56943 46.938454 1.2677211
199.63419 45.962509 1.2291818
204.7395 48.107899 1.2819669
199.60127 46.054581 1.2254734
199.58517 46.14912 1.2220848
199.55319 46.238159 1.2184947
199.51874 46.387573 1.2129253
199.48793 46.472828 1.2094835
199.45758 46.556763 1.2060944
205.04208 46.432373 1.3350056
205.03633 46.559963 1.3308072
204.99226 46.7491 1.3237129
204.94582 46.848724 1.3194073
202.86354 45.856091 1.2999911
204.93095 46.963135 1.3154052
202.82747 45.957745 1.2958752
204.90117 47.067307 1.311363
202.8022 46.061741 1.291949
204.87108 47.247005 1.3049113
202.75946 46.230095 1.2855484
199.85863 45.227268 1.2464141
202.73543 46.329052 1.281813
202.70206 46.422123 1.2780359
199.79829 45.431229 1.2384505
204.80168 47.548382 1.2936274
202.68382 46.519608 1.2744894
202.63028 46.668274 1.2684504
199.71364 45.690395 1.2281355
199.68008 45.783901 1.2243403
202.59154 46.850784 1.2616976
199.658 45.878586 1.2207884
202.56105 46.934841 1.2582777
199.64171 45.972992 1.2173868
199.60954 46.061874 1.2137729
199.57947 46.118217 1.2112442
199.51331 46.379963 1.2013004
205.10001 46.206173 1.3427157
205.06776 46.319698 1.338287
205.02412 46.508923 1.3311603
204.99344 46.616966 1.3269452
202.90598 45.623569 1.3057269
204.96333 46.723076 1.3228064
202.88538 45.731728 1.3017637
204.94394 46.832821 1.3188229
202.84999 45.831482 1.2976935
199.98776 44.831295 1.2570821
204.91908 47.015301 1.3123864
204.89067 47.114712 1.3085035
202.78351 46.098911 1.2874997
204.87259 47.217915 1.3047615
199.87314 45.209984 1.2421294
204.86948 47.32769 1.3011889
199.83804 45.307724 1.2381303
204.83238 47.488785 1.2951236
199.78265 45.467468 1.2316446
202.66638 46.53334 1.2707095
199.76552 45.565083 1.2281046
204.79402 47.679241 1.2880915
199.73235 45.656902 1.2243426
199.71051 45.749893 1.2208306
199.6944 45.842621 1.217472
199.66422 45.898857 1.2149185
205.10074 46.014305 1.349432
205.08479 46.136318 1.3451102
205.05199 46.331192 1.338019
205.03696 46.447598 1.3339002
202.93913 45.449978 1.3119282
200.04282 44.665443 1.2625872
199.98863 44.840252 1.2555889
202.82701 45.929649 1.2936661
202.80353 46.026855 1.2899457
199.94479 45.048416 1.2477878
202.74136 46.276993 1.2803271
199.84274 45.302616 1.2370135
199.81999 45.39875 1.2333465
202.6931 46.455528 1.2733623
199.80307 45.494595 1.2298385
199.77025 45.58477 1.2261029
199.71844 45.732304 1.2200407
199.70285 45.822464 1.2167492
204.68089 48.330814 1.2643661
204.65831 48.408054 1.2613093
199.06705 47.928574 1.1328743
205.12488 45.805473 1.3488467
205.10918 45.927525 1.3445762
205.09241 46.130795 1.3377086
205.07231 46.244442 1.333589
202.98999 45.255154 1.3105426
205.04234 46.350582 1.3294495
202.9644 45.361214 1.3065196
205.03831 46.468624 1.3256104
202.94435 45.4674 1.3026375
200.12265 44.47884 1.2602731
200.08797 44.545719 1.2572522
204.99847 46.642849 1.3190594
202.8968 45.633747 1.2961348
200.06808 44.653358 1.2533286
204.98508 46.750519 1.3153036
202.87787 45.734837 1.292443
200.03157 44.75436 1.2491807
204.94244 46.840042 1.3113592
202.8544 45.832043 1.2887552
200.00693 44.856655 1.2453016
204.93951 46.949795 1.307811
202.83618 45.929527 1.2851962
199.97154 44.954163 1.2412939
204.90279 47.110931 1.3017553
202.79222 46.082184 1.27922
199.92123 45.114956 1.2348944
204.89079 47.21101 1.2982765
202.76077 46.169273 1.2756445
199.89827 45.210938 1.2312591
204.86484 47.301418 1.2947394
202.74397 46.260723 1.272313
199.88113 45.306641 1.2277843
202.71349 46.344784 1.2688584
199.84811 45.396664 1.224075
199.81561 45.485245 1.2204248
199.76434 45.630196 1.2145013
199.71809 45.802303 1.2078505
205.12831 45.921524 1.3334222
205.09802 46.029671 1.3292816
203.04144 45.054401 1.3054327
205.06831 46.135872 1.3252161
203.01587 45.160465 1.3014797
202.98064 45.260303 1.2974663
200.19139 44.283283 1.2544278
200.15665 44.35009 1.2514483
205.02505 46.428211 1.3150368
202.9483 45.43301 1.2912744
200.13092 44.456051 1.2474951
202.92938 45.534103 1.2876502
200.11131 44.561642 1.2437139
202.89612 45.627232 1.283896
200.07523 44.66074 1.2397003
202.87315 45.722733 1.2803385
200.05089 44.761124 1.2359558
200.00024 44.921658 1.2296597
202.82652 45.974483 1.2713263
199.96616 45.01469 1.2258865
204.89285 47.086948 1.2911873
202.79552 46.060013 1.267866
199.94347 45.10894 1.222375
199.92653 45.202934 1.2190229
199.89386 45.291367 1.2154292
199.8423 45.436077 1.2095984
205.19649 45.358574 1.3389517
205.15977 45.681255 1.3282133
205.14523 45.797726 1.3243037
205.1412 45.917709 1.3205607
203.07326 44.934357 1.2966835
205.09673 46.013779 1.3164923
203.05324 45.04055 1.2929432
205.08264 46.201801 1.3104249
203.00574 45.206917 1.2866648
200.20531 44.235142 1.2434167
205.05461 46.301296 1.3066798
202.98682 45.308014 1.283108
200.16861 44.335983 1.2394058
205.04181 46.407269 1.3031341
202.95358 45.401146 1.2794205
200.14375 44.438126 1.2356631
205.02438 46.508846 1.2996013
202.93063 45.496655 1.2759283
200.12491 44.53994 1.2320861
200.09221 44.601421 1.2293729
205.00244 46.678192 1.2938961
202.90125 45.655399 1.2703515
200.06857 44.698891 1.2258034
200.03442 44.791866 1.222097
204.95053 46.860573 1.2870173
202.85303 45.833958 1.263685
200.01709 44.88744 1.2187486
199.9839 44.977318 1.2151616
199.96193 45.068386 1.2118293
199.93153 45.124367 1.2093424
199.88411 45.298958 1.2028164
199.83298 45.466797 1.1963991
205.16206 45.551235 1.3183349
205.14755 45.667709 1.3144823
205.14357 45.787697 1.3107936
203.06505 44.800789 1.2871754
200.2619 43.932587 1.2414893
200.22713 43.999367 1.2386044
200.20706 44.106857 1.2348783
200.17039 44.20771 1.2309263
202.95575 45.271904 1.2702986
200.14558 44.309864 1.2272383
205.04156 46.387054 1.2902697
200.12677 44.411686 1.2237135
200.09409 44.473179 1.2210404
205.01466 46.55368 1.2846013
200.0705 44.57066 1.2175231
204.98843 46.645607 1.2811828
202.86263 45.609356 1.2578312
200.03636 44.663651 1.2138714
204.96265 46.736057 1.27782
200.01906 44.759228 1.2105718
199.9859 44.849121 1.2070373
199.96396 44.940197 1.2037539
199.91763 45.086105 1.1982081
199.86569 45.256603 1.1917838
204.91206 47.371048 1.257545
204.88141 47.415558 1.2554313
203.16768 44.476357 1.2892531
205.17471 45.546719 1.3078327
203.13184 44.578125 1.2853507
203.11186 44.684334 1.2817137
200.33563 43.710995 1.24103
200.3008 43.777699 1.2381881
205.11687 45.830944 1.2979903
203.06444 44.850727 1.2756125
200.2749 43.883514 1.2344148
205.10396 45.938656 1.2944857
203.04558 44.951836 1.272154
200.23816 43.984306 1.2305186
203.01237 45.044987 1.2685717
200.21887 44.087917 1.2269756
200.18324 44.185192 1.2232109
205.04745 46.312881 1.2820181
202.95059 45.295296 1.2596328
200.12698 44.344173 1.2171078
205.02144 46.40485 1.2786506
202.92877 45.386395 1.2563961
200.10925 44.441372 1.213793
205.01004 46.503437 1.2754531
200.07558 44.532753 1.2102515
200.03651 44.71767 1.2038121
200.00609 44.773605 1.2013987
199.90724 45.115761 1.1888195
205.26093 45.155045 1.320913
205.24644 45.271526 1.3170602
205.2169 45.377777 1.3131455
203.17393 44.409355 1.2921523
205.18791 45.48214 1.3093009
200.3428 43.609161 1.2467886
205.15909 45.662003 1.3031933
203.10655 44.681957 1.2823147
200.31691 43.714977 1.2429765
205.14618 45.769711 1.2996427
203.07288 44.776894 1.2786384
200.28018 43.815769 1.2390496
205.10408 45.859428 1.2959164
203.0545 44.876221 1.2752051
200.26089 43.91938 1.2354656
203.0316 44.971745 1.2717755
200.22527 44.016655 1.2316713
205.08011 46.138523 1.2869481
202.99275 45.12653 1.266175
200.16902 44.17564 1.2255186
205.05417 46.230503 1.2835504
200.13492 44.268639 1.2218901
200.11763 44.36422 1.2185961
200.06258 44.5452 1.2118119
201.80447 49.77317 1.0975156
201.7679 49.820641 1.0951936
205.34634 44.636894 1.3304409
203.25858 44.112385 1.2957772
205.26584 45.182343 1.3122321
203.23808 44.22057 1.2920567
203.2028 44.32037 1.2882297
200.42633 43.347584 1.2503415
200.39151 43.414295 1.2475125
205.19807 45.46114 1.3022835
203.15541 44.486771 1.2821245
200.35423 43.516949 1.2435527
